# .PCD v0.7 - Point Cloud Data file format
VERSION 0.7
FIELDS x y z intensity normal_x normal_y normal_z curvature
SIZE 4 4 4 4 4 4 4 4
TYPE F F F F F F F F
COUNT 1 1 1 1 1 1 1 1
WIDTH 668
HEIGHT 1
VIEWPOINT 0 0 0 1 0 0 0
POINTS 668
DATA ascii
-0.25088355 0.74291968 1.961 0 -0.028731253 -0.99948639 0.014201809 0
-0.4305422 0.73108292 1.9777259 0 0.80763447 0.5869413 -0.056803949 0
-0.32958058 0.73016673 2.0928893 0 0.7958892 -0.59561199 -0.1086591 0
-0.27399448 0.73187238 2.1479506 0 -0.32798642 -0.89475 -0.30306348 0
-0.38742304 0.71785796 2.0425017 0 0.45532879 -0.033259895 -0.88970202 0
-0.35571042 0.5927465 1.7503749 0 0.97547078 0.19486478 0.10239371 0
-0.36291483 0.59715623 1.952 0 0.9896704 0.12936603 0.061782654 0
-0.35348028 0.54938745 1.8056611 0 0.9961468 0.087702133 0.00015861914 0
-0.34235111 0.49424669 1.8664412 0 0.98900628 0.13104536 0.068511963 0
-0.33509421 0.44490498 1.9143125 0 0.93646461 -0.32467243 0.13274753 0
-0.53913677 0.15541404 2.00278 0 -0.071213141 -0.67069644 -0.73830551 0
-0.49082416 0.15246905 2.0104539 0 0.039994814 -0.21826896 -0.97506881 0
-0.78291523 0.11810999 1.8407142 0 0.86820018 -0.34737939 0.35433912 0
-0.80570018 0.092567436 1.8749034 0 0.66600287 -0.6869331 0.29079747 0
-0.5500899 0.10822193 2.0324328 0 0.086309023 -0.99472123 0.055501871 0
-0.6267494 0.083338968 2.0633333 0 0.0036297636 -0.99957639 0.028877262 0
-0.5895623 0.079410061 2.0615001 0 0.2179817 -0.97168124 0.091212437 0
-0.80642349 0.011031604 1.7447141 0 0.38731855 -0.91067654 0.14371017 0
-0.86206305 -0.002308592 1.8326364 0 0.59434855 -0.76506317 0.24784693 0
0.99114484 -0.044611596 3.3248992 0 -0.12750778 -0.84084088 -0.52604985 0
1.0483459 -0.059668291 3.3463342 0 0.10829978 -0.89635116 -0.42991388 0
0.92022038 -0.055177879 3.4599111 0 -0.025531305 -0.0088359686 -0.99963498 0
1.0171032 -0.084316872 3.365 0 -0.057369195 -0.94946587 -0.30858296 0
0.95621181 -0.08534421 3.4060001 0 -0.40856165 -0.88662785 -0.21672228 0
0.8778314 -0.10772943 3.4619393 0 -0.76962495 0.45021558 -0.45275086 0
1.0462304 -0.16203688 3.445147 0 0.33059573 0.51167381 -0.79302996 0
0.9926284 -0.17075913 3.4350517 0 -0.8710286 0.027829472 -0.49044356 0
1.0298033 -0.2173911 3.4340448 0 0.057201102 -0.83236128 -0.55127388 0
0.98408556 -0.22207108 3.4586301 0 0.28313693 -0.31741804 -0.90503001 0
1.142028 -0.27636802 3.4452188 0 0.084196232 0.25053006 -0.96444064 0
1.0988141 -0.29410666 3.4360001 0 -0.24139936 0.83089036 -0.50134587 0
1.0943297 -0.3389653 3.4520004 0 0.58770609 -0.27373621 -0.76136059 0
1.1560019 -0.32904863 3.4190145 0 0.25097698 -0.29641271 -0.92149341 0
1.2093595 -0.38264298 3.4060681 0 0.66071481 -0.37258083 -0.65164375 0
1.2365625 -0.45100635 3.4505 0 0.67746317 0.10139626 -0.72853452 0
1.2637867 -0.43739191 3.4170988 0 -0.90276951 0.3863385 0.1890766 0
1.3175012 -0.49345404 3.4146929 0 -0.80656785 -0.33315206 -0.48832184 0
1.3113996 -0.56055468 3.4430373 0 0.071094796 0.91593862 -0.39497089 0
1.3768643 -0.55044127 3.4203377 0 -0.96196574 0.2498908 -0.11034714 0
1.4312367 -0.60729617 3.4157999 0 -0.13459475 0.79372466 -0.59319949 0
1.4839944 -0.65810192 3.403681 0 -0.021528505 -0.2363774 -0.97142279 0
1.5384234 -0.71242791 3.3929055 0 -0.25566557 0.055847052 -0.96515095 0
1.6507233 -0.7661438 3.3812728 0 0.0025397018 -0.22245951 -0.97493869 0
1.593323 -0.76906127 3.3867712 0 -0.21677087 -0.26060635 -0.94079477 0
1.6467649 -0.82194996 3.3860142 0 0.59265554 -0.11483245 -0.79722828 0
1.6068982 -0.84970713 3.381 0 -0.55430615 -0.35701862 -0.75185257 0
1.7061517 -0.88058573 3.3879344 0 0.44022205 -0.055977292 -0.89614236 0
0.055906761 -0.93378514 3.4612067 0 -0.012427999 0.11732192 -0.99301624 0
0.0013936708 -0.99062574 3.4588528 0 -0.4375245 -0.22614492 -0.87030494 0
0.16590013 -1.0456343 3.464618 0 0.041397199 0.13865052 -0.98947585 0
0.11096276 -1.0994011 3.4468832 0 -0.0056016175 0.021479642 -0.99975365 0
0.25714424 -1.1604679 3.4400909 0 0.10952786 -0.18441984 -0.97672564 0
0.21691732 -1.1499891 3.4124546 0 0.0088856025 -0.75102717 -0.66021162 0
0.20838644 -1.2060221 3.4430408 0 -0.23779446 -0.18910952 -0.95272839 0
0.27684042 -1.209681 3.4209828 0 -0.17563185 -0.022421595 -0.9842006 0
0.36600348 -1.256815 3.4478457 0 -0.2653127 0.92024404 -0.2876808 0
0.32661146 -1.2669282 3.4195771 0 0.8338502 0.083707802 -0.54560685 0
0.32672727 -1.3255157 3.4575384 0 0.71047729 -0.37953436 -0.59260082 0
0.38494256 -1.3154784 3.4288073 0 -0.3005535 -0.66391617 -0.68475038 0
0.49767393 -1.3868418 3.4511673 0 0.73572093 0.46810359 -0.4894833 0
0.45249373 -1.3661314 3.4363999 0 -0.50636888 0.46118608 -0.7286275 0
0.4890115 -1.4319562 3.4355412 0 0.070126809 0.012813332 -0.99745578 0
0.42888322 -1.4418751 3.4515831 0 0.027125131 -0.88925231 -0.45661226 0
0.58728558 -1.4623566 3.446625 0 0.10536219 0.17425205 -0.97904807 0
-0.054465424 0.74776816 1.816323 0 -0.30562317 -0.95005095 -0.063227713 0
-0.21821611 0.74138027 1.8190001 0 -0.19255218 -0.98126149 0.0070391744 0
-0.22065508 0.7445429 1.8680789 0 -0.11247858 -0.99364823 -0.0034500677 0
-0.066313922 0.74189389 1.8822501 0 -0.078720942 -0.99154216 0.10318575 0
-0.16271986 0.74468589 1.9212664 0 0.026603851 -0.99623924 0.082459576 0
-0.11758098 0.74169433 1.9334075 0 -0.017561572 -0.9997285 0.015315952 0
-0.3872087 0.73234975 1.976303 0 0.22609067 -0.95865935 0.17278711 0
-0.27530375 0.73477811 2.0906343 0 0.22143869 -0.97456545 0.034456596 0
-0.42300943 0.72556382 2.0396864 0 0.96737134 0.23877485 0.084730431 0
-0.33144641 0.72855884 2.1439865 0 -0.0039638979 -0.99957758 0.028790358 0
-0.35705966 0.68225366 2.066 0 0.98764563 -0.10482314 0.11648269 0
-0.35575658 0.58355451 1.8015456 0 0.88263988 0.4689987 -0.031420149 0
-0.35817891 0.58561361 1.8520001 0 0.98577404 0.16031542 -0.050483525 0
-0.38007727 0.66622174 2.0490303 0 0.71159619 0.61409783 -0.34134263 0
-0.35464522 0.53868693 1.75508 0 0.97920275 0.19958165 -0.036456957 0
-0.34304234 0.51189166 1.9311427 0 0.97610396 0.2145635 0.034405679 0
-0.33608106 0.43871251 1.8656667 0 0.98901349 -0.11113691 0.097473398 0
-0.49909419 0.17216191 2.0015233 0 0.21299036 -0.65876234 -0.72157288 0
-0.55228901 0.1418394 2.0123341 0 -0.24704751 -0.34326532 -0.90616584 0
-0.81314278 0.096356593 1.9312917 0 0.93774867 -0.2447775 0.2463969 0
-0.49605849 0.10983085 2.0343473 0 0.0053863968 -0.9994812 0.031753987 0
-0.64806837 0.083350748 2.0636249 0 0.29539716 -0.80345786 -0.5169102 0
-0.4888463 0.079649433 2.0677142 0 0.0024425618 -0.99954677 0.030007351 0
-0.67975295 0.078196391 2.0585713 0 0.090717204 -0.99420744 0.057636384 0
-0.84256727 0.00066982873 1.8119999 0 0.34409997 -0.93251067 0.10963197 0
1.0347264 -0.042908672 3.3255506 0 0.29175153 -0.56078494 -0.77485561 0
0.98794985 -0.069312647 3.3483641 0 -0.17535321 -0.93259186 -0.31547359 0
0.93084866 -0.055106997 3.4064167 0 -0.68356204 -0.70923692 -0.17241238 0
0.8770265 -0.058957126 3.4648213 0 -0.0057175909 0.0031805024 -0.9999786 0
1.026544 -0.084316872 3.365 0 0.039789774 -0.94182628 -0.33373639 0
0.93445438 -0.10955805 3.4563937 0 0.056006245 -0.21580914 -0.97482806 0
0.87230134 -0.13026875 3.4336667 0 -0.65485078 0.56025344 -0.50723428 0
1.0195799 -0.18895204 3.437 0 0.45296794 0.42216349 -0.78523755 0
0.98749906 -0.15833968 3.4597368 0 -0.51137948 0.10335993 -0.85311663 0
1.0029683 -0.21163325 3.4338398 0 -0.61808026 -0.69148237 -0.37393716 0
1.051703 -0.21763152 3.4502103 0 0.0051321536 -0.8405785 -0.54166538 0
1.0993732 -0.27213642 3.4586108 0 -0.28665257 0.78118235 -0.55460304 0
1.1615082 -0.27368256 3.415339 0 -0.97514439 -0.15916994 -0.15413769 0
1.1415529 -0.33089548 3.4387646 0 -0.57087463 -0.60848874 -0.55122024 0
1.0996962 -0.32623839 3.4316623 0 -0.043103583 -0.55899847 -0.82804769 0
1.2657396 -0.38607132 3.426158 0 -0.11484031 0.90451533 -0.41068691 0
1.2574958 -0.45100445 3.4505 0 0.69685292 0.088721633 -0.71170533 0
1.2098514 -0.44013727 3.4230978 0 0.52518743 -0.21944451 -0.82220578 0
1.3719784 -0.49526438 3.4147091 0 0.11730738 -0.098251559 -0.98822343 0
1.3218724 -0.54862905 3.4183471 0 -0.12503919 0.92579079 -0.35675874 0
1.4858286 -0.60475314 3.4079075 0 0.041208182 0.31020805 -0.94977516 0
1.4332675 -0.65876955 3.40306 0 0.61293584 -0.30750364 -0.72784007 0
1.5945299 -0.71330982 3.3903863 0 -0.050175861 -0.03901168 -0.99797815 0
1.5386724 -0.76976973 3.3909264 0 0.068377517 -0.056003563 -0.99608648 0
1.7046343 -0.82670325 3.3930135 0 -0.26428571 0.27152103 -0.92543477 0
1.6677152 -0.87740225 3.3991067 0 0.51475024 0.034377705 -0.85665065 0
1.6044502 -0.88053489 3.3731997 0 -0.94465274 -0.28652954 -0.15978763 0
0.00063705165 -0.93568832 3.4653051 0 -0.021190278 0.020703662 -0.99956113 0
0.054576349 -0.99099475 3.459167 0 -0.0051835426 0.029294726 -0.99955744 0
0.11003569 -1.0446067 3.4557838 0 -0.02975218 -0.16692597 -0.98552048 0
0.16528323 -1.0998223 3.4517648 0 0.02050684 0.15311408 -0.98799574 0
0.22271396 -1.1444339 3.4415004 0 0.73259151 -0.1629077 -0.66088635 0
0.27690798 -1.154025 3.4291523 0 -0.846798 0.051780842 -0.52938837 0
0.25810197 -1.192997 3.4411666 0 -0.65357924 0.56008625 -0.50905573 0
0.22844128 -1.2109778 3.4246385 0 -0.6902746 -0.13392848 -0.71104437 0
0.33420688 -1.2687907 3.4441855 0 0.72806829 -0.29823318 -0.61723059 0
0.38742507 -1.2659005 3.4234118 0 -0.037127215 -0.33209899 -0.94251359 0
0.38520777 -1.3433444 3.441 0 -0.54014689 -0.51870531 -0.6627112 0
0.33092919 -1.3137736 3.4314485 0 0.2441068 -0.6899268 -0.68147856 0
0.49535188 -1.3572639 3.4349542 0 -0.01228651 -0.70441657 -0.70968044 0
0.44135094 -1.3764695 3.4520018 0 -0.11395982 0.24301735 -0.96330464 0
0.5061186 -1.4203757 3.447 0 0.35116789 0.086664729 -0.93229312 0
0.44379944 -1.4266435 3.4348791 0 0.80494285 -0.029601138 -0.59261352 0
0.61967707 -1.4583683 3.4296665 0 0.34318185 -0.31985682 -0.88312954 0
0.54808521 -1.460951 3.4433126 0 0.20594856 0.17511472 -0.96276689 0
-0.16236597 0.74601108 1.8074645 0 -0.036450729 -0.9972111 0.065126501 0
-0.10930734 0.74603415 1.8694795 0 -0.0096356254 -0.9952628 0.096742295 0
-0.1845596 0.74131745 1.8832502 0 0.050181191 -0.99840438 0.025895029 0
-0.055098921 0.74555111 1.9232299 0 -0.11519607 -0.99333835 -0.0029925536 0
-0.21895565 0.74094206 1.9227623 0 -0.079937965 -0.99678493 -0.0054559736 0
-0.27130124 0.73658335 1.9792498 0 -0.19740878 -0.97318161 -0.11809854 0
-0.32954207 0.73037392 2.0344844 0 0.24325827 -0.96397287 0.10761877 0
-0.36479756 0.71273172 2.079073 0 0.99840599 0.014482465 0.054550841 0
-0.36037073 0.59251916 1.7491513 0 0.99922246 0.038693689 -0.0075773774 0
-0.35927892 0.57556581 1.7885001 0 0.99230629 0.10431164 -0.066687964 0
-0.3545981 0.58517408 1.9365001 0 0.9544788 0.28655988 -0.082787745 0
-0.35006669 0.5507769 1.8627497 0 0.98968732 0.14319356 -0.0038189138 0
-0.34763399 0.49469364 1.8071506 0 0.99693924 0.077849306 0.0071836412 0
-0.34086737 0.43716615 1.7582225 0 0.99516815 -0.098150343 -0.0026330671 0
-0.65533054 0.14117722 2.016 0 0.0089597302 -0.99816692 0.05985526 0
-0.77910602 0.11427247 1.8511351 0 0.45312789 -0.89045453 0.042022131 0
-0.60480732 0.1091295 2.0333216 0 -0.13656683 -0.99053836 -0.013538947 0
-0.54379916 0.078925341 2.0489166 0 -0.14617731 -0.98920172 -0.010593609 0
-0.61217284 0.07722953 2.0662222 0 -0.28604519 -0.95619768 -0.062162254 0
-0.85702723 0.036983214 1.9225 0 0.85374516 -0.38515937 0.35038775 0
-0.8184939 0.065542795 1.8731893 0 0.63798326 -0.72423756 0.26164365 0
-0.7946744 0.021024739 1.736625 0 0.86482316 -0.37195683 0.33723748 0
-0.84882969 0.018620979 1.9435264 0 0.87664485 -0.46065858 -0.13887922 0
0.95904815 -0.038551666 3.3251998 0 -0.66672868 -0.55661225 -0.49563676 0
-0.87648767 -0.010884397 1.8757123 0 0.87444627 -0.29131374 0.38791752 0
1.0634384 -0.07865835 3.3923333 0 0.32026041 -0.84089285 -0.43627125 0
0.9929353 -0.093419485 3.4110341 0 -0.19497949 -0.92553794 -0.32459581 0
1.0456505 -0.12176703 3.4637415 0 -0.21505125 0.10990039 -0.97039932 0
0.95566839 -0.15777381 3.4344997 0 -0.47887743 -0.75874585 -0.44156685 0
0.8841427 -0.16577508 3.4561875 0 0.52725685 -0.4701739 -0.70776892 0
0.9338671 -0.21892895 3.4582722 0 0.016650196 -0.046704903 -0.99876994 0
0.86395389 -0.24641156 3.4316666 0 0.33684838 0.78211874 -0.52423614 0
1.2636008 -0.27173829 3.4188809 0 0.73865294 0.048832998 -0.67231482 0
1.282962 -0.30775988 3.448 0 0.55143917 0.41431808 -0.72405481 0
1.2100377 -0.33100814 3.4174416 0 0.20436241 -0.14534594 -0.96804476 0
1.0978167 -0.38615459 3.4534309 0 -0.049315192 -0.14821933 -0.98772418 0
1.1569562 -0.38691249 3.4167812 0 0.37852097 -0.29300761 -0.8779912 0
1.1195794 -0.42462513 3.419857 0 -0.72142279 -0.54500175 -0.42722625 0
1.1362873 -0.45285162 3.4399998 0 -0.89547855 -0.31339461 -0.31607285 0
1.4859716 -0.4937602 3.4031224 0 -0.008283399 -0.35032073 -0.93659317 0
1.4287958 -0.55054563 3.407639 0 0.31254813 -0.57192957 -0.75842619 0
1.2967649 -0.58133352 3.4389999 0 0.11343095 0.91114169 -0.39617455 0
1.3739841 -0.60581154 3.4206748 0 -0.96610051 0.24096718 -0.09265399 0
1.317847 -0.66084361 3.4156282 0 0.10969888 0.0088952472 -0.99392509 0
1.7053421 -0.71471912 3.3881428 0 0.024776302 0.15569709 -0.98749405 0
1.6494707 -0.76763296 3.388386 0 0.5461421 0.052079499 -0.83607215 0
1.6368154 -0.83968908 3.3813999 0 -0.041243799 0.46129194 -0.88628936 0
1.5930153 -0.8250457 3.3894424 0 -0.87318915 -0.3922196 -0.2893174 0
1.5380058 -0.88037366 3.3949101 0 0.15891266 -0.24477778 -0.95646775 0
1.6948087 -0.87643874 3.377964 0 0.81102747 -0.20801331 -0.54677701 0
0.11064234 -0.9347384 3.4631548 0 0.37998572 -0.2182432 -0.89887756 0
0.16587527 -0.99051785 3.4643757 0 -0.056642383 0.088834383 -0.99443454 0
0.029571712 -1.0694431 3.437 0 0.51953924 -0.026238933 -0.8540436 0
7.4316398e-05 -1.0448539 3.4541152 0 -0.47504595 0.31862897 -0.82024807 0
0.058318529 -1.0994464 3.4442031 0 0.14946277 0.031084714 -0.98827863 0
0.018550107 -1.0987636 3.4368093 0 -0.13384016 0.076258652 -0.98806459 0
0.32922411 -1.1533275 3.4414859 0 0.19778973 0.7950052 -0.57345092 0
0.38571513 -1.1566998 3.4226375 0 -0.097778991 0.023970602 -0.99491954 0
0.40629676 -1.1966808 3.4424999 0 0.77266669 -0.026409283 -0.63426244 0
0.33020896 -1.2090255 3.4250181 0 0.45340192 0.44227466 -0.77383459 0
0.2024142 -1.2532445 3.4520004 0 -0.81733179 0.37057394 -0.44118449 0
0.2750389 -1.2595962 3.419435 0 -0.64957035 -0.48789009 -0.58311373 0
0.21144941 -1.3030505 3.4327338 0 0.0067387912 -0.66530311 -0.74654293 0
0.26649526 -1.3226243 3.4538777 0 0.19828081 0.12681261 -0.97190714 0
0.5513134 -1.380307 3.449667 0 0.31607711 0.10006214 -0.94344199 0
0.62040663 -1.3922199 3.4304545 0 -0.87421811 -0.032206837 -0.48446414 0
0.54151416 -1.4071862 3.4221666 0 -0.48561981 -0.59494054 -0.6404835 0
0.59453583 -1.4290341 3.4541726 0 0.079766162 0.4224838 -0.90285367 0
0.48895821 -1.4607068 3.4351666 0 0.083704427 0.047189746 -0.99537271 0
0.42817301 -1.4665357 3.4580002 0 0.1805442 -0.79317743 -0.58161288 0
-0.22078463 0.74633753 1.806134 0 0.050376967 -0.99464047 0.090291947 0
-0.054795086 0.74584663 1.8667692 0 0.29500908 -0.95545548 0.0086342795 0
-0.21486342 0.74155539 1.8838748 0 -0.20361204 -0.97810555 -0.043032624 0
-0.16694283 0.7417118 1.9299287 0 -0.12227733 -0.9922325 0.022869056 0
-0.10817941 0.74489075 1.9189715 0 -0.064039648 -0.99769753 0.022328358 0
-0.32979965 0.73489374 1.9776416 0 -0.2041823 -0.9526152 -0.22546366 0
-0.2784391 0.73510408 2.0325811 0 0.21269289 -0.97684574 -0.023111084 0
-0.36203608 0.68449825 2.0649998 0 0.99663448 -0.01106482 0.081223562 0
-0.36319807 0.71967649 2.1493158 0 0.95915109 -0.23019238 0.16444078 0
-0.35968071 0.58625239 1.7904999 0 0.87788868 0.47760063 -0.034774147 0
-0.35319263 0.58574736 1.8589092 0 0.88213474 0.46935743 -0.039268889 0
-0.3591201 0.56023109 1.7541379 0 0.98833328 0.14933541 -0.029936941 0
-0.35139644 0.64835423 2.0546668 0 0.91969776 -0.32400331 0.22176085 0
-0.34725177 0.55094439 1.9298655 0 0.99517244 0.094756559 0.025554525 0
-0.34887189 0.49414366 1.7568499 0 0.90178776 0.40454188 -0.15206836 0
-0.33864787 0.43658626 1.8041912 0 0.83112288 -0.55591601 -0.013869282 0
-0.68283939 0.14111075 2.007 0 0.002648402 -0.99826717 0.058785886 0
-0.6033653 0.14422405 2.0188956 0 -0.038908079 -0.037356645 -0.99854428 0
-0.48383823 0.084250078 2.0646667 0 0.0037721694 -0.99950492 0.031236498 0
-0.66089952 0.10942543 2.0307598 0 -0.13131367 -0.8417244 -0.52369529 0
-0.51181805 0.079313755 2.059 0 0.0033172672 -0.99953532 0.030300001 0
-0.65822977 0.076440036 2.0694616 0 -0.052873202 -0.99855793 0.0093003139 0
-0.83842719 0.051163729 1.9349768 0 0.79220712 -0.26328218 -0.55053657 0
-0.84665471 0.018447135 1.8654209 0 0.77928126 -0.550762 0.29896823 0
-1.3429908 -0.013148079 3.2615001 0 0.94673073 0.27879301 -0.16116855 0
-0.86517513 -0.0049061729 1.9243524 0 0.94019777 -0.33501881 -0.061568625 0
0.96559507 -0.078441933 3.3829999 0 -0.14174449 -0.93438911 -0.32684198 0
0.94266415 -0.049998742 3.3550184 0 -0.31560943 -0.91990554 -0.23273253 0
1.0418643 -0.095304102 3.41488 0 0.0046621193 -0.93760234 -0.34767833 0
0.98817462 -0.11798425 3.4609506 0 0.06280186 -0.18416739 -0.98088646 0
0.93492204 -0.16473271 3.4614167 0 0.018847723 0.093393646 -0.99545085 0
0.86639857 -0.15675913 3.4357221 0 0.38355201 -0.65598667 -0.65005332 0
0.94436669 -0.22078656 3.4323332 0 -0.12722489 -0.81966835 -0.55853176 0
0.88044661 -0.21924637 3.4586716 0 -0.10082966 0.87538463 -0.4727951 0
1.2839528 -0.29187092 3.4506667 0 0.68810809 0.036879767 -0.72467041 0
1.2067263 -0.27503669 3.3991561 0 -0.64083624 -0.67480034 -0.36602387 0
1.2002794 -0.31767562 3.4389999 0 0.25055018 0.32821986 -0.91076696 0
1.2638783 -0.33029887 3.4262621 0 0.57420164 0.53943074 -0.615879 0
1.1380831 -0.37035614 3.4429998 0 0.34330761 0.6760844 -0.65195853 0
1.1072437 -0.38439411 3.4220707 0 -0.89942026 -0.33106032 -0.28538084 0
1.1548711 -0.44106731 3.4209867 0 -0.81559145 -0.47081953 -0.33636242 0
1.0993741 -0.43922094 3.4505858 0 -0.17516187 -0.83236438 -0.52582109 0
1.4319817 -0.49583739 3.4174998 0 0.39297587 0.56155652 -0.72816509 0
1.4851396 -0.55108917 3.4129627 0 0.032376185 0.21511662 -0.97605157 0
1.3185234 -0.60555941 3.4196856 0 0.13992885 0.0066276509 -0.99013948 0
1.372751 -0.66062254 3.4044023 0 -0.85867554 -0.41843393 -0.29595503 0
1.6512111 -0.71328312 3.3956459 0 0.56869787 0.11086732 -0.81504053 0
1.7058169 -0.76987988 3.3898349 0 0.30337134 -0.046830699 -0.95172095 0
1.5380735 -0.82249993 3.3934782 0 0.55830383 -0.18002087 -0.80986995 0
1.5856174 -0.87865353 3.4083183 0 0.49740815 -0.14295165 -0.85565764 0
1.6423042 -0.88260728 3.3744755 0 0.54215658 -0.32503432 -0.77486712 0
0.16563661 -0.93414807 3.4595792 0 -0.05179308 0.078773484 -0.99554628 0
0.11091734 -0.99156326 3.4680302 0 0.12195848 0.94723159 -0.2964429 0
0.056732852 -1.0445273 3.4460118 0 0.45678595 -0.293464 -0.83977705 0
0.019928776 -1.0694431 3.437 0 -0.12081742 0.40746093 -0.90519542 0
-0.0073273992 -1.1000861 3.4467144 0 0.55940193 0.55537492 -0.61532766 0
0.032143164 -1.1118609 3.4369998 0 0.027208358 0.070251316 -0.99715829 0
0.36397105 -1.1373422 3.4440999 0 0.18644464 0.87138391 -0.45379356 0
0.3309283 -1.162051 3.4246218 0 0.521622 -0.28269625 -0.8049804 0
0.38309184 -1.2090729 3.419266 0 -0.19987309 -0.66360545 -0.7208873 0
0.32999799 -1.2221524 3.4403157 0 0.64576387 0.29778105 -0.70307577 0
0.26802298 -1.2908319 3.4446666 0 -0.31083721 -0.69055915 -0.65307605 0
0.22183478 -1.2655674 3.4312577 0 -0.070172451 -0.29798836 -0.95198685 0
0.22475185 -1.3271569 3.4553916 0 -0.48801959 0.12180779 -0.86429155 0
0.29250097 -1.3096712 3.420588 0 -0.27133271 -0.68004322 -0.68111658 0
0.60290635 -1.3730059 3.452553 0 0.037275087 0.02258529 -0.99904978 0
0.54112482 -1.3667022 3.4316466 0 -0.8257075 0.52910227 -0.19559661 0
0.54971993 -1.431293 3.4505892 0 0.30785972 0.27677599 -0.91028434 0
0.61736596 -1.4342854 3.4264851 0 -0.24695088 -0.82709855 -0.50489944 0
0.5152334 -1.462337 3.4390001 0 0.29538187 0.079770066 -0.95204324 0
0.4469119 -1.4597856 3.4329998 0 0.4179928 -0.64340162 -0.6413396 0
-0.37145415 0.72187817 2.2639284 0 0.96733993 0.24992153 0.042339884 0
-0.32934996 0.72206318 2.3080907 0 3.0413215e-05 -0.99998319 -0.0058015273 0
-0.27430215 0.72400069 2.3650231 0 0.077140287 -0.99347848 0.083963685 0
-0.22275272 0.72071153 2.4153488 0 -0.09433648 -0.99550617 0.0082590943 0
-0.16635714 0.72064364 2.474308 0 -0.1632084 -0.98653489 0.010577593 0
-0.11073732 0.71937138 2.5366874 0 0.077135615 -0.99119717 -0.10760297 0
-0.0504333 0.7189759 2.5851381 0 -0.064781234 -0.99789953 -0.00014898879 0
-0.32809982 0.38096198 1.7560546 0 0.8239454 -0.23500173 -0.51564354 0
-0.3234199 0.3268764 1.8137333 0 0.79410207 -0.60768366 -0.011077359 0
-0.3398129 0.28741378 1.8732704 0 0.037083369 -0.99731237 0.063189179 0
-0.41863164 0.26439863 1.7619396 0 0.79742658 -0.54880321 0.25085086 0
-0.38445219 0.26791903 1.8095232 0 -0.0037174234 -0.99546945 0.095010161 0
-0.34030187 0.12317817 2.0484021 0 0.13809654 -0.57611966 -0.80561501 0
-0.37472984 0.086481512 2.0660713 0 -0.14445511 -0.98950797 0.0025947767 0
-0.37721312 0.079352275 2.0599999 0 -0.00031560054 -0.99956781 0.029395893 0
-0.35366759 0.078686826 2.0763333 0 0.038463581 -0.99870026 0.033442274 0
1.5945702 -0.11377539 3.4073081 0 0.45937702 -0.5430631 -0.70289069 0
1.6513107 -0.16538168 3.4115391 0 0.14982744 -0.1042919 -0.98319632 0
1.7036963 -0.22013901 3.4122059 0 -0.23763973 0.17018335 -0.95632899 0
1.3194007 -0.27672657 3.418582 0 -0.97023356 0.17840575 -0.16376343 0
1.3759329 -0.33003768 3.4180443 0 0.030110758 0.050578065 -0.9982661 0
1.3060455 -0.34411365 3.4393685 0 0.28992593 0.093358524 -0.95248479 0
1.4310495 -0.3841171 3.4293602 0 0.0039254501 0.099991739 -0.99498051 0
1.4837422 -0.43766096 3.4161198 0 -0.096765682 0.47912839 -0.87239468 0
1.1255821 -0.50561023 3.427 0 0.50076115 -0.30112606 -0.81151789 0
1.1505233 -0.49626815 3.4540007 0 0.34403014 -0.50323379 -0.79271632 0
1.1576556 -0.56216687 3.4307306 0 -0.60184544 0.48043993 -0.63793385 0
1.1000098 -0.55108905 3.4500005 0 -0.91887903 -0.030014686 -0.39339632 0
1.2899573 -0.58116454 3.438 0 0.27034685 0.85929054 -0.43420303 0
1.2075623 -0.60426295 3.4231482 0 -0.01788228 0.070237078 -0.99737006 0
1.2594033 -0.66002774 3.4066129 0 -0.97259814 -0.053808391 -0.22618032 0
0.89104062 -0.69888479 3.4345262 0 -0.1713682 -0.26513878 -0.94885957 0
0.93659717 -0.7178812 3.4412665 0 0.19549423 0.62879753 -0.75259256 0
0.87163979 -0.77177018 3.4494045 0 -0.55938286 0.74946487 -0.3541092 0
0.92935437 -0.77652377 3.4207542 0 -0.12221166 -0.30173996 -0.94552493 0
0.98933655 -0.82490611 3.4251893 0 0.46739972 0.47756541 -0.74395484 0
1.0111163 -0.9030531 3.4519999 0 0.53915936 -0.12413622 -0.83300507 0
1.0410975 -0.87934411 3.4167805 0 -0.94737738 0.050800674 -0.31606257 0
0.65295827 -0.9085052 3.4360001 0 -0.22427392 -0.74133784 -0.63255 0
0.71187937 -0.93424487 3.4568543 0 -0.0001067293 0.028412927 -0.99959624 0
0.6641314 -0.98824793 3.4537175 0 0.33867317 -0.73575759 -0.58648217 0
0.7282216 -0.99575621 3.4283214 0 0.18761221 0.91256869 -0.36334559 0
0.83790624 -1.0322839 3.4397271 0 0.23879066 0.76242971 -0.60139847 0
0.77115738 -1.0444741 3.4274149 0 -0.58865094 -0.56386125 -0.57926726 0
0.82383281 -1.1014668 3.4123707 0 -0.77894813 -0.35101044 -0.51964569 0
0.43909672 -1.1544043 3.422147 0 -0.26936251 -0.61520594 -0.74092209 0
0.41771287 -1.2019417 3.4437499 0 -0.34534606 0.92152447 -0.17756361 0
0.49403924 -1.2101095 3.4258134 0 -0.098658301 0.021086842 -0.99489802 0
0.59691721 -1.2554505 3.446408 0 -0.46670139 0.86824459 -0.16834822 0
0.54400188 -1.2652234 3.4335542 0 -0.72107601 -0.29408363 -0.62734705 0
0.60330582 -1.3117403 3.4187081 0 -0.03687457 -0.70813698 -0.7051115 0
0.56979394 -1.3233171 3.4426107 0 0.42871654 -0.025521085 -0.90307856 0
0.27489269 -1.3749124 3.4585066 0 -0.49651816 0.11202614 -0.86076707 0
0.27969176 -1.4070818 3.4297142 0 -0.46731916 -0.57663107 -0.67015624 0
0.22015586 -1.4304341 3.4608011 0 0.27514517 -0.020151498 -0.96119153 0
0.36770475 -1.4646137 3.4611001 0 -0.072045632 0.20961216 -0.97512674 0
-0.36734545 0.72105986 2.2069089 0 0.99370021 0.053196386 0.098641597 0
-0.27562138 0.72293222 2.305474 0 0.15579836 -0.98547566 0.067561977 0
-0.32995996 0.72090364 2.3629599 0 0.015372679 -0.99975729 -0.015779918 0
-0.16315417 0.72206658 2.4141772 0 -0.015918167 -0.99978298 0.013443996 0
-0.21851654 0.72171742 2.4750438 0 -0.14005992 -0.99004656 0.013819352 0
-0.055771776 0.71947002 2.531045 0 0.30818069 -0.95011014 0.048120156 0
-0.11242704 0.71529764 2.5822115 0 0.020441376 -0.99932855 0.030406199 0
-0.34424397 0.4090648 1.8263751 0 0.90075564 0.43358296 0.025401846 0
-0.32542378 0.33400193 1.7583802 0 0.9475379 -0.31895217 -0.021011127 0
-0.3337495 0.28892267 1.9171666 0 0.3422249 -0.93530726 0.089902379 0
-0.38746372 0.27134413 1.75867 0 0.077298343 -0.99093139 0.10990976 0
-0.413149 0.2530461 1.79 0 0.046597905 -0.99338698 0.10493351 0
-0.33387205 0.16470785 2.0357306 0 0.24456498 -0.086426012 -0.96577352 0
-1.356985 -0.0094299 3.2684286 0 0.92571872 0.00066871429 0.37821206 0
1.61664 -0.053437077 3.4015002 0 0.80052835 -0.17093399 -0.57440066 0
1.5399092 -0.11223336 3.4114237 0 0.015712583 -0.23317397 -0.97230816 0
1.7059828 -0.16604759 3.416517 0 0.007860234 -0.063190773 -0.99797058 0
1.6492573 -0.21975893 3.4163344 0 0.14013231 0.23434174 -0.96200156 0
1.2952101 -0.29951149 3.4519999 0 -0.82051724 -0.032427609 -0.5707013 0
1.3737819 -0.27462968 3.4104989 0 0.02569616 -0.070834383 -0.9971571 0
1.3215688 -0.3267974 3.416476 0 -0.97686422 0.022975305 -0.21262279 0
1.4865981 -0.38438737 3.4317777 0 0.030442225 0.029336657 -0.99910599 0
1.4313474 -0.44073939 3.4251528 0 0.67488599 0.29684064 -0.67558467 0
1.1032779 -0.49539658 3.4604425 0 0.026545614 -0.1031199 -0.99431467 0
1.1661047 -0.4930214 3.4266288 0 -0.73892999 -0.56824178 -0.36205488 0
1.1531295 -0.54572636 3.4552386 0 -0.61372787 0.49115783 -0.61814415 0
1.2608232 -0.60492384 3.4128911 0 -0.97404325 0.12729409 -0.18717885 0
1.2080585 -0.6608128 3.4142642 0 -0.96950001 -0.079944745 -0.23168659 0
0.91560572 -0.69861227 3.4350004 0 0.061896004 -0.28161415 -0.95752931 0
0.87584478 -0.71986568 3.4419465 0 -0.38327408 0.60211176 -0.70040172 0
0.94672567 -0.75731468 3.444792 0 0.51915032 0.68634003 -0.50933313 0
0.89334005 -0.768812 3.4233239 0 -0.53495109 0.82813334 -0.16739924 0
1.0404931 -0.82553279 3.4163964 0 -0.87904149 0.41479516 -0.23501293 0
1.0175729 -0.89982563 3.4519999 0 -0.035234984 -0.45563906 -0.889467 0
0.98799223 -0.87869203 3.4250996 0 0.21644612 -0.044586696 -0.97527599 0
0.66001719 -0.93668032 3.4590304 0 0.36888829 0.83310425 -0.41213942 0
0.73178232 -0.94735819 3.4297369 0 -0.79004109 -0.29502863 -0.537395 0
0.71035236 -0.99113357 3.4560163 0 0.33502302 0.8607043 -0.38333762 0
0.65572309 -0.99933535 3.4247646 0 -0.92180693 0.16441749 -0.35105407 0
0.82253414 -1.0478022 3.4167187 0 -0.54116899 -0.60094744 -0.5882163 0
0.76882231 -1.1010158 3.4215443 0 -0.27535707 0.7648508 -0.58239317 0
0.49357456 -1.1545514 3.42257 0 0.022740943 -0.006044894 -0.99972314 0
0.44102499 -1.2110934 3.4261775 0 0.3578746 0.019549429 -0.93356508 0
0.57011503 -1.2655355 3.4432309 0 -0.085657135 -0.63234663 -0.76993555 0
0.60890168 -1.2658885 3.407536 0 -0.71823972 -0.41553587 -0.55808753 0
0.60762364 -1.3374887 3.4471817 0 -0.12389143 -0.59695387 -0.79265189 0
0.54262894 -1.3181325 3.4347279 0 0.038659234 -0.037170641 -0.99856091 0
0.2197511 -1.3744843 3.4547582 0 0.047029972 -0.024300762 -0.99859792 0
0.28041753 -1.3984615 3.4314547 0 -0.60276377 -0.49301711 -0.62738347 0
0.2746394 -1.4354308 3.4573863 0 -0.5019365 0.16531262 -0.84895915 0
0.38870069 -1.4582266 3.4293334 0 -0.65102243 0.75886977 -0.016923621 0
0.33176419 -1.4653891 3.4607384 0 0.41468766 0.15249483 -0.89709508 0
-0.33019108 0.7264545 2.2017794 0 -0.13942298 -0.98816448 -0.063971788 0
-0.27487558 0.72685474 2.2589626 0 0.079437844 -0.9818337 -0.17231415 0
-0.37409621 0.72160304 2.3658621 0 -0.34927291 -0.93103129 -0.10577959 0
-0.10671909 0.72260326 2.419688 0 -0.22574982 -0.97400439 -0.018775873 0
-0.054123331 0.72297323 2.4756041 0 0.25190818 -0.96739727 -0.026170839 0
-0.22216715 0.71860069 2.5307004 0 -0.11196521 -0.98670202 -0.11782604 0
-0.16763547 0.71320438 2.5871704 0 -0.047272708 -0.99508631 -0.086997375 0
-0.33910143 0.40798774 1.8673 0 0.7821297 0.62169141 -0.042108007 0
-0.32028779 0.30426657 1.9083334 0 0.9958356 0.020821117 0.088757694 0
-0.34350866 0.29031351 1.7593088 0 0.39847609 -0.91652358 -0.034660265 0
-0.39192572 0.26476461 1.898 0 0.20294747 -0.97407937 0.09990944 0
-0.44285253 0.26278833 1.8742307 0 0.63066077 -0.7392121 0.23628901 0
-0.43706974 0.16831522 2.0020249 0 -0.27535358 -0.022384927 -0.96108246 0
-0.31216645 0.14119041 2.063 0 0.86084616 -0.48677683 0.14829825 0
-0.37626603 0.16392624 2.0125487 0 0.58079886 -0.44109514 -0.68418407 0
-0.40484697 0.13728938 2.006 0 -0.18672818 -0.5360567 -0.82327151 0
-0.43996367 0.10923476 2.0352376 0 -0.0029310302 -0.99952632 0.030635545 0
1.5091935 -0.036098544 3.2720001 0 -0.98163289 -0.11699029 -0.15069884 0
1.535653 -0.048076417 3.2950668 0 -0.14216943 -0.95378077 -0.26474553 0
1.6962285 -0.060528573 3.4436042 0 0.58257127 0.31557226 -0.74901593 0
1.639053 -0.056677416 3.4150527 0 0.78979439 0.060648032 -0.61036611 0
1.5871747 -0.059920404 3.3581367 0 0.27792734 -0.87144715 -0.40414876 0
1.5584714 -0.084492266 3.372 0 0.042274911 -0.94683164 -0.31894013 0
1.6730573 -0.089385495 3.4390001 0 0.17176294 0.79660809 -0.57958007 0
1.7071105 -0.11184071 3.4148419 0 0.18250081 -0.0091224071 -0.98316336 0
1.5378803 -0.16625807 3.4140389 0 0.21293974 -0.74968165 -0.62660521 0
1.5956434 -0.2194165 3.411 0 0.13570389 0.080696814 -0.98745763 0
1.4309353 -0.27408633 3.4184916 0 0.006849356 -0.15406671 -0.98803675 0
1.4796169 -0.32935882 3.4163463 0 -0.0022808909 0.072020538 -0.99740058 0
1.3697302 -0.3911877 3.4445555 0 -0.34937045 0.89196688 -0.28694168 0
1.3206265 -0.38745686 3.422682 0 -0.011117787 0.89287508 -0.45016736 0
1.297142 -0.45285162 3.4400001 0 -0.23190939 -0.86964846 -0.43580902 0
1.3780317 -0.44142279 3.4193625 0 -0.021617616 -0.067200221 -0.99750537 0
1.2520938 -0.50156367 3.4387999 0 0.10779112 -0.40084627 -0.90978211 0
1.2091577 -0.49641219 3.4283051 0 0.025599211 -0.49651217 -0.86765218 0
1.1924089 -0.55080396 3.4571998 0 0.19740759 0.87082577 -0.45021415 0
1.2591122 -0.55304879 3.433713 0 0.09529908 0.086490758 -0.9916842 0
1.1325692 -0.61349958 3.4449997 0 -0.41993928 -0.5163061 -0.74637729 0
1.1084507 -0.60885662 3.4213076 0 -0.54672039 0.78362751 -0.29499975 0
1.097057 -0.64986855 3.4444091 0 0.12518004 -0.59878266 -0.79106843 0
1.165656 -0.66269767 3.4192495 0 -0.29174161 0.92055607 -0.25973707 0
1.0326499 -0.70392179 3.4523606 0 -0.031873196 0.93030995 -0.36538693 0
1.008957 -0.72579831 3.4227779 0 -0.95742601 -0.029745873 -0.28714213 0
0.98476642 -0.75546712 3.4458072 0 -0.45651248 0.8616218 -0.22182056 0
1.0533115 -0.77234179 3.4169462 0 -0.80947679 0.50180805 -0.30485421 0
0.90846682 -0.83911002 3.4545 0 -0.8452304 0.50720525 -0.16831066 0
0.88046747 -0.82285756 3.4219229 0 -0.82614946 -0.40984824 -0.38665408 0
0.87863761 -0.88184446 3.4627743 0 0.0044537978 0.16403899 -0.98644382 0
0.93414003 -0.87985718 3.4168334 0 -0.61834413 -0.61611122 -0.4879114 0
0.82537448 -0.93523353 3.4594922 0 -0.76232326 0.37436649 -0.52793276 0
0.76581818 -0.93507558 3.4296248 0 -0.033808883 -0.051657155 -0.99809247 0
0.7828477 -0.97279423 3.4561253 0 -0.85385096 -0.078750417 -0.51452589 0
0.82716805 -0.99331689 3.4322464 0 0.0129038 0.078530356 -0.9968282 0
0.70985186 -1.0209894 3.447 0 0.34415635 0.8520714 -0.39437395 0
0.66465306 -1.0382597 3.4242253 0 0.43905067 0.87078559 -0.22128488 0
0.655074 -1.0853829 3.452347 0 -0.71255952 0.54082644 -0.44695166 0
0.71789604 -1.1048063 3.4230587 0 -0.42136663 0.87717408 -0.230252 0
0.60045087 -1.1581708 3.4597228 0 0.64951736 0.33959725 -0.68029481 0
0.54138434 -1.1553442 3.432811 0 0.25552991 0.076644994 -0.96375835 0
0.60926414 -1.2046682 3.4293077 0 -0.76962084 0.5989548 -0.2212171 0
0.57262743 -1.2148896 3.4424665 0 0.17859602 -0.058018547 -0.98221046 0
0.62471956 -1.2503723 3.3703334 0 -0.24767107 -0.65737545 -0.71169984 0
0.43938196 -1.2639933 3.4243455 0 -0.19497582 -0.016236518 -0.98067373 0
0.43656343 -1.3360192 3.4526668 0 0.40458468 -0.51704031 -0.75430804 0
0.49485978 -1.3198378 3.4291077 0 -0.27496463 -0.18339893 -0.94380051 0
0.38489711 -1.3772825 3.4481525 0 0.30169928 0.78747344 -0.53745985 0
0.33835512 -1.3960682 3.4326 0 0.69762039 -0.36815432 -0.61464477 0
0.32900316 -1.4334207 3.4623332 0 0.42361137 0.25186798 -0.8701241 0
0.39315069 -1.4306362 3.4328148 0 -0.30387497 0.95208025 0.034686729 0
0.2729519 -1.4646417 3.4542994 0 -0.38011399 0.022999734 -0.92465365 0
-0.27445847 0.72563964 2.1962466 0 -0.16873841 -0.98389417 -0.058987685 0
-0.32851976 0.72184342 2.2508578 0 -0.12007117 -0.99255967 0.020205479 0
-0.36928928 0.7198422 2.3081429 0 0.90091109 -0.36864021 0.22904961 0
-0.055088971 0.72446966 2.4202092 0 0.19689995 -0.98022729 0.019620575 0
-0.11055066 0.72073621 2.4732294 0 -0.25782853 -0.96611279 0.012276677 0
-0.16350625 0.71805423 2.5365107 0 -0.12769495 -0.97850662 -0.16192214 0
-0.21948095 0.7129755 2.5822546 0 0.0012848432 -0.99267656 -0.12079603 0
-0.34004161 0.40930781 1.9245001 0 0.96154106 0.26473868 0.073159009 0
-0.31952631 0.32437468 1.8601929 0 0.82737279 -0.54837525 -0.12140358 0
-0.34445745 0.28902963 1.8185753 0 0.52857339 -0.84858632 -0.022616565 0
-0.38021255 0.26817524 1.8661033 0 -0.17203724 -0.98424542 0.040795151 0
-0.40328461 0.16667388 2.0033729 0 -0.25035447 -0.43557483 -0.86463714 0
-0.44780639 0.1528469 2.0091536 0 -0.11249112 -0.50056148 -0.85836118 0
-0.44424388 0.13541321 2.006 0 -0.30992213 -0.50932819 -0.80282819 0
-0.33218801 0.1048781 2.0713089 0 0.95568126 -0.2480056 0.15864033 0
-0.38588399 0.11054549 2.0382247 0 -0.0051625962 -0.9995259 0.03035417 0
-0.37426141 0.078529842 2.0722499 0 -0.15133753 -0.988482 0.00061178958 0
1.7111503 -0.049017366 3.4144816 0 -0.77206707 0.61783683 -0.14896321 0
1.6593347 -0.054264046 3.4421613 0 0.76906586 0.21228705 -0.60288626 0
1.5368279 -0.072457306 3.3449094 0 -0.0044833501 -0.94575131 -0.32486078 0
1.6933385 -0.086221196 3.441 0 0.39097103 0.64976007 -0.65188462 0
1.593073 -0.084655143 3.3785 0 0.078303896 -0.90825379 -0.4110274 0
1.6502891 -0.11205663 3.4125814 0 0.22088186 0.20294599 -0.95395184 0
1.5949509 -0.16373199 3.4087522 0 0.20535538 -0.050002836 -0.97740924 0
1.5389603 -0.21905857 3.4152796 0 -0.4623377 0.27759466 -0.84213126 0
1.4852922 -0.27665979 3.4142749 0 -0.9815743 0.15247609 -0.11516496 0
1.4299244 -0.32936078 3.4266391 0 -0.00018769507 -0.079808578 -0.99681026 0
1.3062234 -0.36263767 3.4384999 0 0.27865705 0.14322896 -0.94965029 0
1.3783287 -0.385654 3.4209847 0 0.59861177 -0.18664742 -0.77899092 0
1.3679186 -0.43171549 3.4399998 0 0.28712738 0.74328882 -0.60421824 0
1.3198359 -0.44041115 3.4140854 0 -0.44105542 0.77560145 -0.45156676 0
1.212054 -0.49808535 3.4542143 0 0.094690986 -0.40144369 -0.91097564 0
1.2668376 -0.49226061 3.4214749 0 -0.8301363 -0.41227734 -0.37536806 0
1.276983 -0.53755635 3.4395368 0 0.34609869 0.78207356 -0.51824385 0
1.211854 -0.55182147 3.4305749 0 -0.20414525 0.88299084 -0.42267239 0
1.0973728 -0.60378927 3.447382 0 0.10428687 0.048457704 -0.99336606 0
1.1553723 -0.60445905 3.4279127 0 -0.38725224 -0.66368604 -0.63996613 0
1.1505787 -0.66027707 3.4510543 0 0.74060833 0.11045867 -0.66279572 0
1.0991824 -0.66307175 3.4191556 0 -0.91755658 -0.16928643 -0.35976678 0
0.98793238 -0.71326953 3.4493692 0 0.074695669 -0.049790978 -0.99596262 0
1.0520079 -0.71988428 3.428705 0 -0.58511394 -0.44944403 -0.67501241 0
1.0367194 -0.77032334 3.4543214 0 0.40073508 0.78194165 -0.47747117 0
0.98907471 -0.77314764 3.4214311 0 0.12716228 -0.031627309 -0.99137765 0
0.88254219 -0.82668543 3.4527006 0 0.024356181 -0.11621162 -0.99292582 0
0.93405759 -0.82608294 3.4220166 0 -0.77841496 0.61493796 -0.12618023 0
0.90210915 -0.87812591 3.4333749 0 -0.96531963 0.019729739 -0.2603243 0
0.77231491 -0.93302119 3.4575005 0 0.77411914 0.12815091 -0.61993301 0
0.84650457 -0.94870138 3.4283528 0 -0.83064616 -0.34046859 -0.44057715 0
0.8099556 -0.97285616 3.457571 0 -0.0019279495 0.94615847 -0.32369813 0
0.76863366 -0.99179643 3.4281361 0 -0.021026166 -0.0022987672 -0.9997763 0
0.65034813 -1.0482591 3.4526429 0 -0.22723028 -0.435662 -0.87095648 0
0.71618998 -1.0459591 3.4181993 0 -0.39296216 -0.64923531 -0.65120989 0
0.69396746 -1.0947292 3.4545999 0 0.078447364 0.97832459 -0.19164318 0
0.66110563 -1.1039082 3.4266274 0 0.19814712 -0.67736673 -0.70845753 0
0.56965607 -1.156418 3.4504166 0 0.73502034 0.2377916 -0.63498062 0
0.62704736 -1.1565989 3.4269094 0 -0.70148081 -0.1673113 -0.69277102 0
0.60291421 -1.2102324 3.4487157 0 -0.0053515327 -0.12148834 -0.99257845 0
0.54342765 -1.2095929 3.4322722 0 0.1592426 -0.027536267 -0.98685539 0
0.493889 -1.2646054 3.4269567 0 0.10772105 0.068751268 -0.9918012 0
0.44214779 -1.3101761 3.4226224 0 -0.7392863 -0.15478161 -0.65536141 0
0.38636041 -1.355442 3.437 0 -0.439533 0.050101623 -0.89682811 0
0.33195826 -1.375883 3.4634907 0 0.81885326 0.21879502 -0.53066766 0
0.34340966 -1.4101889 3.4333749 0 -0.46837944 -0.6146189 -0.63471597 0
0.38067445 -1.4337366 3.4552228 0 -0.53596985 0.84049821 -0.079366341 0
0.22266832 -1.4667698 3.4632723 0 0.26634234 -0.016836712 -0.96373153 0
-0.22151561 0.72862989 2.2016618 0 0.088864967 -0.99426913 0.059431262 0
-0.16386937 0.73223495 2.2607901 0 -0.2864148 -0.94897854 -0.13193326 0
-0.10930649 0.7271359 2.3094726 0 -0.10638973 -0.99428242 0.0091543142 0
-0.056133982 0.72635239 2.369164 0 -0.00658235 -0.999538 -0.029672574 0
-0.38215074 0.71399266 2.4752502 0 0.97366124 -0.14619026 0.17496379 0
-0.32770932 0.71281886 2.5296421 0 -0.21545064 -0.97547072 -0.045142286 0
-0.27343723 0.71218485 2.58551 0 -0.019288139 -0.99759048 -0.066643089 0
-0.32912424 0.33114275 2.0317209 0 0.71906906 0.30143362 -0.62616098 0
-0.38338712 0.26014557 2.0104001 0 -0.23168842 0.38181257 -0.8947289 0
-0.43876216 0.26709607 2.0019879 0 -0.39340627 0.02312858 -0.91907376 0
-0.4575353 0.24216585 2.0079997 0 -0.1743677 0.27183121 -0.94641626 0
-0.39495587 0.22814786 2.0027742 0 0.65700775 0.13652283 -0.7414192 0
-1.3494996 0.050193656 3.4668572 0 0.95266908 0.29932266 0.053175479 0
-1.3527143 -0.019028496 3.3922 0 0.90530735 -0.41320419 -0.098392457 0
1.4265348 -0.046768975 3.3061368 0 -0.00096649677 -0.95609391 -0.29305875 0
1.4851781 -0.068120785 3.3471859 0 -0.057973802 -0.93084604 -0.36078352 0
1.3347381 -0.078754961 3.3965001 0 0.25393799 -0.84473026 -0.47111166 0
1.3775371 -0.11032429 3.4111733 0 -0.93833393 -0.29588917 -0.17882732 0
1.4304066 -0.16575208 3.4183021 0 0.017561106 -0.039244559 -0.99907529 0
1.4843127 -0.22036892 3.4231269 0 0.021779982 -0.12662549 -0.9917115 0
1.5390973 -0.2754285 3.4019158 0 -0.22575237 -0.83677298 -0.49884555 0
1.5942167 -0.32981345 3.3999064 0 -0.0065535209 -0.071018629 -0.99745351 0
1.6501962 -0.38486081 3.4131734 0 0.051984165 -0.029671302 -0.99820703 0
1.7032166 -0.44160056 3.4028757 0 -0.11304642 -0.37798178 -0.91888535 0
0.93395996 -0.49515253 3.4598813 0 0.032699239 -0.25988659 -0.96508539 0
0.9317292 -0.55439532 3.4314284 0 0.32697141 -0.70400339 -0.63045144 0
0.87837106 -0.54996425 3.4534268 0 0.035467584 0.044359867 -0.99838591 0
1.0474792 -0.60390323 3.4488282 0 0.15138753 0.25142437 -0.95596433 0
1.0089918 -0.60421228 3.4350002 0 -0.41670209 -0.19537254 -0.8878001 0
1.0463307 -0.66723585 3.4302754 0 -0.32893091 -0.66621029 -0.66930431 0
0.98574954 -0.66210562 3.4528356 0 0.13486646 0.16643046 -0.97678649 0
1.1423665 -0.70201325 3.4421663 0 0.42402995 -0.075982556 -0.90245509 0
1.100626 -0.71620297 3.4161994 0 0.33329353 -0.1568636 -0.92968237 0
1.1556838 -0.76888275 3.4079661 0 -0.73812896 -0.25224409 -0.62573045 0
1.2076623 -0.82628858 3.3967738 0 0.067457639 0.20247096 -0.97696221 0
1.1550822 -0.84679639 3.382 0 -0.44191426 0.77372134 -0.45394617 0
1.1072301 -0.87809193 3.3807502 0 -0.90868783 0.10700151 -0.40353099 0
1.2611673 -0.88023603 3.4055216 0 0.11066942 -0.13021839 -0.98528957 0
0.43946055 -0.92284125 3.4280941 0 -0.77304292 -0.29893443 -0.55950248 0
0.49996504 -0.93377995 3.4572098 0 -0.82835102 0.55663842 0.063153088 0
0.441291 -0.98627704 3.4507887 0 0.88291556 0.19770589 -0.42587882 0
0.50127238 -0.98468339 3.4233418 0 -0.56992888 -0.41582495 -0.70871061 0
0.60546935 -1.0450649 3.446243 0 0.084471606 -0.0076611047 -0.99639642 0
0.54420245 -1.0450734 3.4243906 0 0.039372358 0.1615078 -0.98608571 0
0.57292449 -1.0963995 3.4442501 0 0.70240521 -0.091349415 -0.70589113 0
0.61459219 -1.1063071 3.4251215 0 -0.55609655 -0.61827707 -0.55541897 0
0.66417223 -1.1611811 3.4209273 0 -0.63902682 -0.52013576 -0.56665993 0
0.63998675 -1.2253534 3.4562001 0 -0.89218926 0.3636497 -0.26787555 0
0.71499598 -1.2102195 3.4085624 0 -0.52442861 -0.24862343 -0.81434709 0
0.77306074 -1.2131617 3.3698533 0 0.048904799 -0.77922028 -0.62483931 0
0.7661438 -1.2682129 3.4078174 0 -0.92151827 -0.12864506 -0.36640784 0
0.70736986 -1.2653304 3.3780878 0 -0.32862616 -0.71837187 -0.61314493 0
0.82706606 -1.3174393 3.400146 0 -0.28704819 -0.68958491 -0.66488802 0
0.055136599 -1.3761275 3.4680777 0 0.88540345 0.20772541 -0.41582569 0
0.00049059483 -1.4294106 3.4577739 0 -0.605434 0.0071711242 -0.79586321 0
0.16304386 -1.4680395 3.4628425 0 -0.086135291 0.1282448 -0.98799497 0
-0.16610369 0.72955489 2.1962838 0 0.0065379823 -0.99701136 0.076977946 0
-0.22053939 0.73066115 2.2644789 0 0.011309312 -0.98318106 -0.18228318 0
-0.051745374 0.72848302 2.3126171 0 -0.082179882 -0.99660432 0.0051350277 0
-0.1112861 0.72481406 2.3649485 0 -0.0095082019 -0.99981993 -0.016426276 0
-0.38419002 0.72061372 2.4213405 0 0.95954502 0.27641797 0.053539805 0
-0.27653897 0.71644485 2.5307779 0 0.23511496 -0.96614313 -0.10624708 0
-0.32938689 0.70849812 2.5846124 0 -0.24746078 -0.9667868 -0.063926004 0
-0.33154994 0.38762686 2.0323741 0 0.99339741 0.018587779 0.1132087 0
-0.33560112 0.3099933 2.007 0 0.90111893 -0.41534793 0.12438159 0
-0.38286853 0.26677981 1.9994457 0 -0.30146924 0.35844615 -0.88353419 0
-0.44429991 0.25605536 2.008872 0 -0.040832989 0.10289533 -0.99385369 0
-0.37906393 0.21538728 2.0096984 0 0.54023051 0.19539064 -0.81851918 0
-0.43793094 0.21706867 2.0001419 0 -0.4629418 0.11493715 -0.8789053 0
-1.3590487 0.06255196 3.4054005 0 0.91350448 0.40532908 0.034899354 0
1.5178324 -0.039144404 3.2708333 0 -0.4030779 -0.8634181 -0.3033767 0
1.4881387 -0.045889914 3.3057501 0 -0.40506887 -0.84970039 -0.33753312 0
1.4350249 -0.070032403 3.3537064 0 0.082417898 -0.94004714 -0.33093613 0
1.3541852 -0.11604741 3.4387643 0 0.22113535 -0.024549082 -0.97493416 0
1.3165045 -0.1116173 3.4199703 0 0.40183133 -0.29327741 -0.86747903 0
1.482667 -0.16575423 3.416878 0 -0.051163573 -0.044738125 -0.99768776 0
1.4291557 -0.22047211 3.4187229 0 -0.0030655125 0.21026094 -0.97764051 0
1.5964026 -0.27585813 3.4044166 0 0.19840083 0.088090643 -0.97615433 0
1.540851 -0.33014336 3.4146974 0 0.50198489 -0.3567121 -0.78788811 0
1.7058666 -0.38453132 3.4074011 0 -0.27913427 0.17964426 -0.94329846 0
1.6490252 -0.44124907 3.4077556 0 -0.20794484 -0.40743363 -0.88924515 0
0.87905246 -0.49624985 3.4496975 0 0.027978979 -0.16329099 -0.9861812 0
0.95976359 -0.52208757 3.4300001 0 -0.90596175 0.37482977 -0.19681476 0
0.93667054 -0.54788411 3.4582798 0 0.69260961 0.1919823 -0.69529474 0
0.90347022 -0.56468022 3.4355001 0 -0.90837103 0.28957036 -0.30168068 0
0.99060667 -0.60470247 3.456013 0 0.67831475 0.22291328 -0.70014203 0
1.0220805 -0.5985772 3.4346001 0 0.19639404 0.24341935 -0.9498297 0
1.0034391 -0.64265102 3.4306667 0 -0.24144021 -0.74781114 -0.61845392 0
1.0434262 -0.65772712 3.4442592 0 -0.48397878 -0.33450311 -0.80862361 0
1.0862308 -0.70016259 3.4426367 0 -0.431934 0.8364042 -0.33743298 0
1.1559141 -0.71708739 3.4151087 0 0.07568337 0.78786081 -0.61118519 0
1.0990753 -0.76770985 3.4095888 0 0.45310163 -0.56013906 -0.69350064 0
1.2638186 -0.82380366 3.4077203 0 0.13813218 0.18226498 -0.97349834 0
1.1550822 -0.85628247 3.382 0 -0.19058321 0.16597821 -0.96753776 0
1.2087555 -0.88041842 3.3933816 0 -0.0038679596 -0.17569551 -0.98443699 0
0.44379419 -0.94309491 3.4512947 0 0.079716399 0.32535639 -0.94222534 0
0.48451138 -0.94514549 3.4240005 0 -0.045041692 0.97940147 -0.19683486 0
0.48446706 -0.99768233 3.4526448 0 0.13824852 0.83109069 -0.53867954 0
0.43633354 -0.99285108 3.431087 0 0.23096815 0.88897949 -0.39543539 0
0.55755913 -1.0445057 3.4434245 0 0.52064347 -0.12808922 -0.84411114 0
0.60111922 -1.0966656 3.4468939 0 0.5230574 -0.3509472 -0.77668989 0
0.54251939 -1.0988449 3.4284911 0 0.13656554 -0.13774221 -0.98100817 0
0.65354532 -1.1490504 3.4536667 0 0.64475948 0.61627936 -0.45220017 0
0.71273577 -1.1520914 3.4124689 0 0.050881978 0.048284814 -0.99753678 0
0.66235775 -1.213432 3.4209595 0 -0.61682057 0.70832908 -0.34322348 0
0.8242442 -1.217028 3.3758698 0 -0.27284279 -0.70342439 -0.65631622 0
0.82695597 -1.2642868 3.3923271 0 0.54859185 0.76388961 -0.33988205 0
0.76652271 -1.3190974 3.4100468 0 -0.064754292 -0.040566344 -0.99707639 0
0.0016422607 -1.37628 3.4662035 0 0.031578153 -0.55431217 -0.83170962 0
0.056501284 -1.4267251 3.4671555 0 -0.88119572 0.022314414 -0.47222486 0
0.11318755 -1.4679755 3.4653335 0 0.040522043 0.11305144 -0.99276245 0
0.056401476 -1.4844151 3.5063334 0 0.017705575 -0.87639582 -0.48126602 0
-0.10830021 0.7304042 2.1953142 0 -0.20881285 -0.97795564 -0.00014979018 0
-0.05653806 0.73031569 2.2562699 0 -0.13497867 -0.99060637 -0.021908484 0
-0.21909808 0.72683769 2.3085086 0 -0.081698015 -0.98947471 -0.11943696 0
-0.16614679 0.72430205 2.3644531 0 0.056890003 -0.9983356 0.0094669294 0
-0.33028349 0.71635854 2.4178665 0 -0.050709739 -0.99833423 0.027520519 0
-0.27297285 0.71893907 2.4802794 0 -0.18890241 -0.97959983 -0.068558253 0
-0.38544083 0.70926279 2.5859587 0 0.98942065 0.087391019 0.11579964 0
-0.34531242 0.28650281 1.9906877 0 0.36579913 -0.80521053 -0.46671957 0
-0.33249095 0.21981913 2.0255039 0 0.80441958 -0.11056154 -0.5836826 0
-1.3632535 0.092895754 3.4026999 0 0.92497331 -0.085930884 0.37018964 0
-1.3647317 0.04835112 3.3676667 0 0.52750492 0.84798628 -0.051553302 0
-1.3549325 0.0015455086 3.2946522 0 0.9805395 0.13887708 0.13876408 0
1.3390517 -0.037190504 3.3144002 0 -0.048773311 -0.83346272 -0.55041903 0
1.4367449 -0.077647269 3.3877146 0 0.12499982 -0.93687493 -0.32655847 0
1.3717259 -0.066815734 3.3592823 0 0.0071056783 -0.87107807 -0.49109328 0
1.4843311 -0.11041798 3.4132009 0 0.018490214 -0.013588747 -0.99973679 0
1.3560007 -0.16139479 3.4492421 0 -0.13168809 0.94514579 -0.29892784 0
1.3128554 -0.17022055 3.4326184 0 0.63610637 0.31370553 -0.70495218 0
1.372597 -0.21944818 3.4116116 0 -0.099778615 -0.027432971 -0.99463147 0
1.6523559 -0.27640417 3.4103541 0 0.23911113 0.058892228 -0.9692046 0
1.7064111 -0.33024943 3.402926 0 -0.17282073 -0.18039873 -0.96829194 0
1.5400726 -0.38464758 3.4135387 0 -0.74349874 0.6361379 -0.20624793 0
1.5947423 -0.43976307 3.4098005 0 0.2704244 -0.10466303 -0.95703518 0
1.0430253 -0.49370188 3.4522874 0 0.19727446 0.03434439 -0.97974658 0
0.97009355 -0.51604581 3.4325001 0 -0.8265298 0.5255093 -0.20171364 0
0.99522376 -0.55108595 3.4529438 0 0.078375377 0.042844925 -0.99600291 0
0.93573868 -0.59987766 3.4562566 0 -0.71587181 0.60576314 -0.34724429 0
0.91995686 -0.66117769 3.4304445 0 0.086436041 0.29699874 -0.95095778 0
0.87821269 -0.65663993 3.4442527 0 -0.0078861136 0.12796304 -0.99174768 0
1.2072132 -0.71582663 3.4059045 0 -0.032112513 -0.030984567 -0.99900395 0
1.265069 -0.76855785 3.4067948 0 0.052975204 -0.13066217 -0.99001062 0
1.1036693 -0.82445484 3.4218874 0 -0.93431199 0.28185135 -0.21822262 0
1.08132 -0.86753011 3.4391248 0 0.62193561 0.5996052 -0.50365639 0
1.1546322 -0.87911612 3.3909037 0 0.081455432 -0.29865435 -0.95087886 0
0.60514581 -0.93480867 3.4529998 0 0.50788242 -0.078683905 -0.8578254 0
0.55463475 -0.94054157 3.4307506 0 -0.63449329 0.70880568 -0.30824146 0
0.61500138 -0.98326635 3.4205747 0 -0.42869014 -0.64053124 -0.63713771 0
0.56678319 -0.98965001 3.452091 0 0.79281819 0.2694228 -0.54667252 0
